NCOLS 150 
NROWS 30 
XLLCORNER -135 
YLLCORNER -15 
CELLSIZE 1 
NODATA_value -9999 
63.802199999999999 63.6188 63.4735 63.4663 63.615 63.8125 63.7868 63.7562 63.773 63.8737 63.8703 63.859 63.921 64.0685 63.9765 62.9417 62.9408 63.658 63.6512 63.9945 63.9523 63.9757 63.8675 63.8657 63.92 63.9063 63.8923 63.8973 63.8963 63.893 63.8573 63.7588 63.8428 63.8978 63.9215 63.9175 63.9345 63.954 63.9585 63.9762 64.0027 64.0062 64.024 64.1032 64.0975 64.0995 64.1308 64.1478 64.152 64.1557 64.2217 64.265 64.3047 64.3353 64.38 64.4467 64.523 64.5115 64.5655 64.5693 64.6543 64.6947 64.7852 64.8508 64.9092 64.995 65.0173 65.053 65.1055 65.1835 65.2487 65.2253 65.2927 65.3278 65.3278 65.3932 65.4303 65.4122 65.5452 65.6038 65.6188 65.589 65.707 65.7473 65.8148 65.8542 65.9753 66.06 66.1148 66.1503 66.1663 66.2735 66.2565 66.2565 66.2735 66.2623 66.229 66.2925 66.3767 66.3475 66.3645 66.4175 66.4053 66.4013 66.4473 66.5527 66.604 66.646 66.6998 66.7507 66.7848 66.7832 66.8555 66.8463 66.853 66.8788 66.878 66.9187 66.901 66.9545 67.013 66.9928 66.9857 67.0567 67.0645 67.076 67.131 67.248 67.3112 67.3842 67.372 67.403 67.443 67.454 67.5315 67.6145 67.6667 67.7548 67.8455 67.8343 67.878 68.0775 68.0033 67.3138 67.1545 67.315 67.5527 67.645 67.6773 67.7105
63.621 63.5257 63.4705 63.5 63.7005 63.8625 63.8613 63.8353 63.832 63.8475 63.8745 63.8713 63.9258 64.0575 64.1423 63.465 62.9417 66.9408 63.645 63.9248 64.0082 63.999 63.872 63.812 63.907 63.8555 63.8867 63.857 63.8455 63.8893 63.861 63.8155 63.8063 63.7743 63.77 63.75 63.762 63.8385 63.7745 63.7982 63.8083 63.7935 63.8963 63.8727 63.8875 63.897 63.8715 63.8565 63.8872 63.9232 63.9378 63.995 64.121 64.0863 64.122 64.2245 64.296 64.354 64.41 64.456 64.5052 64.5305 64.5997 64.645 64.7235 64.803 64.9115 65.008 65.0257 65.0772 65.07 65.048 65.1005 65.096 65.1328 65.154 65.2185 65.257 65.2585 65.3173 65.3438 65.4068 65.4465 65.5212 65.5945 65.6275 65.7152 65.8535 65.9063 65.9615 66.0765 66.1438 66.176 66.2205 66.2678 66.2835 66.313 66.3152 66.3363 66.3365 66.3935 66.4248 66.4275 66.4235 66.4447 66.5192 66.579 66.5993 66.6875 66.7535 66.7763 66.8272 66.9212 66.908 66.9242 66.9553 66.9648 66.9358 66.9455 67.052 67.033 67.0335 67.1373 67.2527 67.233 67.2475 67.2765 67.3197 67.3345 67.3982 67.3855 67.3958 67.4065 67.406 67.4567 67.5257 67.6373 67.771 67.8568 67.829 67.9017 68.1697 67.411 67.1845 67.2337 67.452 67.6482 67.6533 67.6908 67.7272
63.5592 63.5213 63.5272 63.6382 63.8375 63.887 63.8705 63.8602 63.8575 63.8797 63.8968 63.918 63.9588 64.0352 64.1862 63.7383 62.945 63.4543 63.4403 63.7752 63.7972 63.7235 63.7135 63.6437 63.6917 63.702 63.6475 63.6423 63.6603 63.649 63.6403 63.5988 63.596 63.5482 63.5638 63.5558 63.5765 63.6145 63.6973 63.653 63.6515 63.6932 63.769 63.7805 63.7665 63.7725 63.7837 63.7868 63.7665 63.8372 63.897 63.967 63.9658 64.0427 64.115 64.213 64.288 64.3425 64.409 64.453 64.506 64.53 64.6135 64.6705 64.754 64.8317 64.9327 65.0275 65.0863 65.1162 65.1062 65.0915 65.1145 65.1117 65.1387 65.1728 65.2295 65.2555 65.246 65.294 65.3388 65.3907 65.4392 65.5115 65.5855 65.6223 65.6875 65.764 65.8223 65.8633 65.9023 65.9015 65.9232 65.9557 66.0228 66.0947 66.0957 66.0768 66.106 66.199 66.2438 66.3258 66.3672 66.469 66.5062 66.5235 66.5665 66.587 66.638 66.6775 66.7393 66.7875 66.864 66.9037 66.9165 66.954 66.967 66.967 67.001 67.0455 67.0055 67.013 67.1253 67.2235 67.2975 67.2558 67.2268 67.2825 67.354 67.477 67.4625 67.4555 67.4047 67.4112 67.525 67.5555 67.683 67.776 67.8453 67.8565 67.9423 67.815 67.1925 67.1773 67.277 67.5472 67.643 67.6775 67.7087 67.7375
63.5667 63.5658 63.6683 63.8672 63.898 63.9217 63.9075 63.8872 63.8573 63.897 63.9202 63.9478 63.9868 64.0458 64.1462 63.9782 62.9487 63.3447 63.3317 63.6567 63.6715 63.6328 63.6155 63.5965 63.597 63.624 63.6305 63.5865 63.617 63.5877 63.5957 63.542 63.5522 63.5075 63.508 63.548 63.584 63.6097 63.7228 63.7035 63.7113 63.7378 63.7627 63.8473 63.8517 63.836 63.88 63.84 63.8755 63.9238 63.9965 64.054 64.1263 64.181 64.2353 64.364 64.4317 64.4877 64.5825 64.6277 64.662 64.7115 64.7813 64.888 64.9795 65.0687 65.1375 65.1462 65.2268 65.2732 65.338 65.3542 65.3712 65.4115 65.4007 65.4075 65.4372 65.4258 65.434 65.464 65.5062 65.5458 65.5963 65.6452 65.7425 65.772 65.8288 65.844 65.8842 65.904 65.9248 65.9163 65.9135 65.965 66.0065 66.0505 66.0277 66.0163 66.0283 66.1022 66.171 66.1575 66.1933 66.2395 66.2637 66.312 66.3607 66.389 66.4335 66.5117 66.5918 66.633 66.7053 66.8135 66.8962 66.9645 67.0055 67.0547 67.0762 67.0263 67.0095 67.0263 67.1273 67.2162 67.2708 67.2635 67.2458 67.273 67.3303 67.36 67.3962 67.4092 67.4477 67.5135 67.6048 67.645 67.7 67.7278 67.8138 67.9195 68.0072 67.3593 67.1618 67.1612 67.3997 67.5983 67.648 67.6945 67.7243 67.747
63.565 63.617 63.7835 63.8973 63.9227 63.9707 63.9442 63.9268 63.913 63.9383 63.9728 63.9695 63.975 64.058 64.0807 64.1845 62.946 62.9533 63.2455 63.641 63.7325 63.6953 63.679 63.6043 63.6007 63.6475 63.6493 63.65 63.63 63.747 63.7993 63.9458 63.658 63.7175 63.7438 63.7575 63.7975 63.9292 64.0983 64.0997 64.0293 63.986 63.9383 63.9378 63.9728 63.9963 64.0452 64.0492 64.0628 64.143 64.186 64.2353 64.238 64.2855 64.352 64.4475 64.516 64.589 64.6745 64.6837 64.6862 64.7383 64.8412 64.9405 65.027 65.0943 65.1277 65.149 65.2073 65.263 65.3355 65.3665 65.376 65.3907 65.387 65.413 65.4583 65.4587 65.4603 65.4697 65.5095 65.5732 65.6012 65.678 65.7142 65.7325 65.777 65.8102 65.8617 65.9335 65.9985 66.088 66.1133 66.13 66.1842 66.204 66.2355 66.1758 66.176 66.1913 66.2122 66.177 66.1943 66.2367 66.2513 66.277 66.2937 66.3148 66.36 66.4057 66.4672 66.5085 66.5537 66.6267 66.6687 66.7428 66.836 66.9697 66.99 66.9455 66.9498 67.0557 67.1175 67.1575 67.202 67.239 67.2627 67.277 67.335 67.3662 67.3798 67.378 67.4385 67.555 67.5663 67.5847 67.6432 67.7337 67.769 67.803 67.8138 67.281 67.1217 67.254 67.5663 67.648 67.6805 67.7093 67.7367 67.7333
63.632 63.8435 63.9255 63.937 63.9388 63.9743 63.9575 63.9263 63.9422 63.9618 63.9885 63.9967 63.9487 63.926 63.9048 63.9178 62.9523 63.5672 63.2135 63.6123 63.932 63.945 63.897 63.8905 63.7685 63.741 63.7938 63.756 63.723 63.7315 63.7887 63.8592 63.8745 63.875 63.8768 63.872 63.8708 63.9027 64.02 64.0505 64.0335 64.0443 64.0475 64.0427 64.0462 64.0983 64.1022 64.112 64.126 64.1868 64.2055 64.2885 64.3285 64.3995 64.4645 64.5222 64.5768 64.6263 64.6708 64.688 64.7105 64.7692 64.862 64.9325 65.001 65.1158 65.1185 65.1455 65.2048 65.29 65.4055 65.4388 65.4125 65.4277 65.4455 65.4782 65.5417 65.4952 65.4928 65.5228 65.5573 65.5865 65.6152 65.666 65.701 65.7005 65.7592 65.7968 65.8392 65.8932 65.9417 66.0025 66.0768 66.123 66.136 66.1835 66.2093 66.241 66.2915 66.287 66.2855 66.3215 66.3615 66.3938 66.4485 66.4563 66.426 66.4498 66.4635 66.4847 66.5543 66.5587 66.566 66.629 66.6553 66.6525 66.66 66.7943 66.7572 66.7565 66.7828 66.828 66.904 66.9595 66.9747 67.0098 67.0642 67.149 67.194 67.285 67.3535 67.3857 67.4425 67.4865 67.5033 67.528 67.6397 67.7367 67.729 67.798 67.253 67.0348 67.1595 67.3845 67.6038 67.6478 67.6908 67.7237 67.741 67.7205
63.8438 63.912 63.9837 63.968 63.9673 63.9775 64.0048 63.9673 63.9448 63.9347 63.9238 63.8148 63.7565 63.72 63.742 63.7445 62.9557 62.9548 63.1455 63.4745 64.0052 64.075 64.007 63.996 63.9625 63.8942 63.8327 63.763 63.7393 63.7523 63.8742 63.9777 63.9787 63.9702 63.9557 63.9135 63.887 63.911 64.0143 64.036 64.0372 64.062 64.0673 64.0293 64.0687 64.13 64.1908 64.1572 64.1582 64.1872 64.1917 64.1872 64.2402 64.246 64.259 64.3053 64.341 64.3652 64.4435 64.4715 64.5575 64.6172 64.688 64.7325 64.788 64.828 64.8848 64.964 65.0888 65.202 65.2455 65.3197 65.3942 65.4553 65.413 65.4202 65.475 65.4928 65.5387 65.549 65.5622 65.562 65.598 65.6283 65.6413 65.666 65.7327 65.799 65.8385 65.8857 65.9453 65.9948 66.0768 66.1237 66.1263 66.181 66.2097 66.2452 66.294 66.2868 66.2842 66.3227 66.3493 66.389 66.453 66.4492 66.4548 66.4853 66.5313 66.5665 66.5843 66.6657 66.7237 66.7527 66.749 66.7042 66.7285 66.8235 66.757 66.761 66.7692 66.8187 66.8783 66.8727 66.8845 66.902 66.9518 66.955 66.9688 67.0195 67.1158 67.2643 67.3835 67.4193 67.458 67.499 67.6175 67.6885 67.7455 67.5622 67.0748 67.0368 67.3132 67.5165 67.6155 67.6712 67.703 67.731 67.7305 66.8678
64.0068 64.0433 64.0378 64.0362 64.0222 63.99 63.996 63.9632 63.7438 63.644 63.6048 63.6242 63.6625 63.6878 63.728 63.7465 63.423 62.9557 63.2325 63.1987 63.728 64 63.9868 63.9297 63.9475 63.9035 63.9162 63.9103 63.9378 63.9357 63.9395 63.9533 63.986 63.9315 63.9253 63.9173 63.902 63.9248 63.9253 63.9375 63.9442 63.884 63.868 63.8402 63.876 63.8965 63.8647 63.8675 63.9582 63.9445 63.9065 63.968 64.0035 64.0723 64.076 64.1058 64.1785 64.2333 64.32 64.3262 64.412 64.4975 64.5882 64.619 64.6357 64.676 64.7117 64.8073 64.8992 64.985 65.0433 65.072 65.1442 65.1495 65.1523 65.1787 65.1963 65.209 65.2542 65.3282 65.3568 65.3583 65.4015 65.4652 65.5447 65.593 65.6955 65.8245 65.8577 65.8825 65.901 65.9628 66.079 66.1683 66.2057 66.236 66.2535 66.2635 66.2933 66.309 66.3518 66.3465 66.3552 66.4157 66.4652 66.4622 66.4655 66.4965 66.5527 66.5745 66.5945 66.6773 66.7203 66.7243 66.745 66.753 66.776 66.8235 66.8773 66.865 66.8745 66.9395 67.0242 67.0048 66.9952 66.9778 67.0235 66.9532 66.9762 67.0113 67.0648 67.1988 67.3115 67.3648 67.452 67.5157 67.6008 67.717 67.7773 67.2947 67.0338 67.0387 67.3037 67.588 67.6182 67.6833 67.7168 67.738 67.716 67.6985
64.0602 64.0525 64.0655 64.084 63.9855 63.9512 63.6797 63.6387 63.5795 63.5757 63.4972 63.5578 63.683 63.767 63.8927 63.889 63.7365 62.9992 62.9945 63.1538 63.2612 63.7955 63.8522 63.8625 63.816 63.7777 63.7542 63.719 63.7492 63.7583 63.7868 63.8155 63.843 63.787 63.7715 63.746 63.7248 63.7255 63.7125 63.7132 63.7755 63.8047 63.78 63.808 63.7952 63.8008 63.8185 63.8428 63.8995 63.897 63.911 63.969 64.0127 64.0405 64.083 64.143 64.1875 64.253 64.3213 64.337 64.4375 64.515 64.6125 64.6373 64.643 64.684 64.7432 64.814 64.904 64.9853 65.024 65.0598 65.0727 65.0762 65.116 65.1175 65.1237 65.155 65.1787 65.2067 65.219 65.224 65.2278 65.2732 65.3777 65.4863 65.5225 65.5545 65.5667 65.6185 65.6572 65.7305 65.835 65.8938 65.9437 66.066 66.0947 66.1628 66.209 66.2188 66.3248 66.3367 66.3633 66.407 66.4273 66.429 66.4845 66.5435 66.5762 66.6032 66.6625 66.7262 66.721 66.7262 66.7475 66.7517 66.7705 66.8163 66.88 66.9515 66.9398 66.9567 67.016 67.0293 67.0798 67.1105 67.136 67.1817 67.1935 67.1612 67.1435 67.2028 67.3205 67.3658 67.4755 67.5735 67.6275 67.7887 67.5543 67.122 67.0303 67.237 67.5135 67.6233 67.6618 67.698 67.728 67.7298 67.7087 67.687
64.1547 64.1202 64.0675 64.0105 63.8805 63.7798 63.6242 63.616 63.7158 63.724 63.5957 63.5938 63.721 63.8838 63.9977 64.003 64.048 63.5057 63.0238 63.1457 63.1445 63.4997 63.779 63.764 63.733 63.695 63.6912 63.6932 63.6813 63.7345 63.707 63.7313 63.737 63.723 63.7072 63.7228 63.6808 63.7145 63.7267 63.7275 63.7635 63.7757 63.7757 63.8073 63.8055 63.803 63.8283 63.855 63.9893 63.9972 64.006 64.0612 64.1685 64.2542 64.2887 64.374 64.4128 64.446 64.4747 64.5492 64.6338 64.7448 64.8173 64.818 64.8535 64.9055 64.9792 65.047 65.107 65.1732 65.1985 65.2322 65.2253 65.2158 65.216 65.2385 65.2375 65.2598 65.2535 65.24 65.247 65.2535 65.244 65.2825 65.3785 65.487 65.5222 65.5137 65.5173 65.5295 65.5652 65.6387 65.7142 65.797 65.8292 65.923 65.993 66.0523 66.1267 66.1025 66.1055 66.1395 66.1748 66.228 66.252 66.3215 66.3662 66.4895 66.524 66.5642 66.6275 66.6728 66.711 66.7025 66.7258 66.7958 66.8398 66.8422 66.9143 66.9433 66.9622 66.9887 67.0147 67.0238 67.048 67.048 67.0565 67.1087 67.1225 67.1745 67.1925 67.207 67.2728 67.3213 67.4313 67.5215 67.6345 67.7897 67.3177 67.1273 67.1645 67.4693 67.5995 67.6273 67.6725 67.7085 67.7333 67.717 67.6967 67.656
64.112 64.0283 63.9478 63.8485 63.759 63.7142 63.6768 63.7207 64.0368 64.302 64.0437 63.767 63.7655 63.962 64.1205 64.1338 64.1507 63.745 63.1618 63.1515 63.1147 63.175 63.8052 63.7675 63.7653 63.719 63.6937 63.7183 63.7055 63.6978 63.7525 63.7648 63.784 63.792 63.8495 63.8138 63.803 63.823 63.8633 63.8645 63.8973 63.9145 64.0195 64.0667 64.1093 64.1308 64.1768 64.1905 64.229 64.2237 64.2548 64.2753 64.3098 64.3665 64.4355 64.497 64.5245 64.5922 64.6705 64.8145 64.9587 65.037 65.0397 65.0088 65.0285 65.0843 65.14 65.191 65.2327 65.257 65.3205 65.341 65.385 65.4185 65.4352 65.4358 65.428 65.4447 65.443 65.4275 65.4368 65.4565 65.483 65.5222 65.61 65.6878 65.6657 65.6852 65.643 65.639 65.6543 65.7175 65.816 65.8848 65.9222 66.029 66.0655 66.1235 66.166 66.1152 66.127 66.1423 66.159 66.1995 66.2132 66.1955 66.2592 66.3388 66.3388 66.3672 66.404 66.47 66.4908 66.498 66.5973 66.6837 66.6615 66.6693 66.737 66.7935 66.8272 66.9413 66.9922 67.0295 67.048 67.033 67.048 67.101 67.0987 67.1428 67.137 67.1355 67.1448 67.1895 67.2665 67.4075 67.5038 67.5297 67.203 67.1452 67.3615 67.5208 67.6137 67.649 67.6862 67.7175 67.7272 67.705 67.6882 67.669
63.8582 63.773 63.7795 63.745 63.7425 63.744 63.7615 63.867 63.7873 63.638 63.6478 63.7183 63.8633 63.9895 64.16 64.1665 64.113 64.016 63.4852 63.1483 63.154 63.1232 63.5522 63.8815 63.8932 63.9162 63.9118 63.9125 63.961 63.9622 63.956 63.9635 63.9557 63.9372 63.9997 64.0125 64.0247 64.037 64.0492 64.073 64.077 64.063 64.1012 64.1527 64.2122 64.2325 64.2097 64.1855 64.1975 64.2432 64.294 64.3285 64.3303 64.37 64.4515 64.5055 64.5498 64.6675 64.7132 64.7875 65.0098 65.034 65.0478 65.0557 65.094 65.1612 65.2373 65.2405 65.27 65.2937 65.3183 65.3345 65.3802 65.406 65.4473 65.4548 65.4545 65.4577 65.4717 65.496 65.4695 65.476 65.56 65.578 65.6635 65.5673 65.5847 65.7093 65.8552 65.8587 65.876 65.9185 65.9778 66.0663 66.0898 66.1525 66.1913 66.2195 66.277 66.318 66.2945 66.2937 66.2835 66.2793 66.2905 66.2852 66.2985 66.3562 66.3515 66.3715 66.3952 66.433 66.4392 66.4688 66.5362 66.6062 66.5853 66.595 66.6283 66.6575 66.6773 66.7225 66.7282 66.7213 66.804 66.8753 66.9215 67.0338 67.1292 67.1563 67.1383 67.1393 67.1462 67.1835 67.2542 67.2962 67.2943 67.2875 67.1833 67.155 67.364 67.552 67.6148 67.6637 67.698 67.722 67.718 67.6977 67.6718 67.6913
63.7533 63.7595 63.775 63.7897 63.7967 63.8128 63.9038 63.985 63.8517 63.8833 63.7393 63.8645 63.9463 64.0068 64.1338 64.0865 64.0515 64.0587 63.802 63.0925 62.9977 63.216 63.2865 63.852 63.8865 63.9183 63.9837 64.0417 64.0188 63.9475 64.0228 63.9505 63.9385 63.926 63.9545 64.0435 64.083 64.0655 64.0803 64.072 64.0778 64.0165 64.0338 64.0963 64.1665 64.148 64.2002 64.1882 64.2038 64.235 64.2725 64.3217 64.3645 64.3812 64.4535 64.483 64.5153 64.6233 64.6895 64.7887 64.9273 64.9948 65.0107 64.9522 65.016 65.0805 65.1342 65.166 65.1967 65.1973 65.2415 65.2738 65.2933 65.38 65.39 65.4078 65.393 65.3975 65.3583 65.35 65.3555 65.4105 65.473 65.5277 65.523 65.4652 65.4847 65.674 65.896 65.8773 65.911 65.9765 65.988 66.0013 66.02 66.0943 66.1722 66.225 66.2663 66.323 66.305 66.3357 66.3568 66.3832 66.3978 66.4445 66.4918 66.499 66.5182 66.498 66.5468 66.5458 66.5443 66.5945 66.6545 66.702 66.643 66.6497 66.6858 66.7203 66.7367 66.784 66.7435 66.7425 66.7855 66.8272 66.855 66.9635 66.9863 67.0155 67.1235 67.2138 67.2148 67.2243 67.2565 67.3002 67.2255 67.171 67.0683 67.0975 67.3867 67.5758 67.6435 67.6787 67.7093 67.7233 67.7053 67.6868 67.67 67.716
63.7605 63.8265 63.8633 63.8825 63.869 63.9123 63.9782 64.0417 64.026 64.0255 64.03 63.9435 63.9435 63.956 64.0015 64.0358 63.966 63.9665 63.9865 63.6872 62.9945 63.7365 63.2525 63.5672 63.8725 63.9538 63.9865 63.9842 63.9637 63.917 63.9072 63.9072 63.9463 63.927 63.9302 63.9827 64.0085 64.024 64.0423 64.031 64.1058 64.0615 64.0348 64.044 64.0328 64.1103 64.13 64.209 64.235 64.1982 64.231 64.1795 64.2122 64.2538 64.2525 64.272 64.306 64.4242 64.5125 64.5092 64.5857 64.6595 64.6582 64.6768 64.6765 64.713 64.808 64.813 64.831 64.9135 64.9323 64.9792 65.0525 65.0775 65.0673 65.1325 65.0833 65.1072 65.1048 65.1208 65.1355 65.1582 65.202 65.2107 65.3268 65.3548 65.385 65.4755 65.606 65.5963 65.6563 65.7462 65.7868 65.7848 65.8343 65.9303 66.0488 66.1455 66.2073 66.25 66.255 66.3047 66.3372 66.3818 66.406 66.4443 66.5088 66.5135 66.5407 66.5407 66.5825 66.6273 66.6653 66.7138 66.7643 66.7485 66.761 66.7962 66.8118 66.8175 66.8848 66.9047 66.922 66.9368 66.9995 66.958 66.9707 67.0105 66.9818 67.017 67.1205 67.1475 67.2055 67.2245 67.3067 67.5175 67.1575 67.1367 67.1113 67.183 67.4545 67.5837 67.6598 67.6963 67.7233 67.714 67.6925 67.6452 67.6865 67.7308
64.038 63.992 64.001 63.98 63.9565 63.9695 64.033 64.0833 64.086 64.1038 64.0485 63.9565 63.9067 63.914 63.9627 63.9955 63.946 63.9325 63.9282 64.0052 63.2637 63.0535 63.249 63.4635 63.7345 63.8848 63.8237 63.796 63.8052 63.8088 63.8068 63.7743 63.7552 63.7298 63.735 63.7578 63.7685 63.8195 63.8172 63.8198 63.862 63.8275 63.7957 63.7805 63.7855 63.834 63.8797 63.9002 63.9043 63.898 63.963 64.0368 64.0283 64.0332 64.035 64.086 64.1263 64.2028 64.2515 64.4345 64.467 64.4815 64.4682 64.5245 64.5465 64.5863 64.7145 64.7558 64.7835 64.8545 64.8463 64.8727 64.926 64.975 64.9765 65.0167 65.0143 65.0072 65.003 65.0567 65.0775 65.0792 65.115 65.1315 65.176 65.2497 65.2663 65.2945 65.361 65.453 65.5033 65.5362 65.5215 65.546 65.6235 65.7223 65.8092 65.8477 65.936 66.0372 66.098 66.1367 66.1793 66.2872 66.336 66.3538 66.4215 66.454 66.4843 66.4847 66.5393 66.5943 66.5932 66.657 66.669 66.6848 66.7432 66.793 66.777 66.7915 66.8075 66.832 66.8812 66.9303 66.989 67.0163 67.0165 67.006 67.0267 67.0648 67.0772 67.1535 67.225 67.4218 67.4425 67.304 66.963 66.9613 67.1833 67.266 67.4675 67.6283 67.675 67.7117 67.7233 67.702 67.6868 67.6302 67.7155 67.7335
64.0375 64.062 64.069 64.0372 64.0182 63.9977 63.8785 63.8662 64.073 64.068 64.0725 63.9415 63.9238 63.925 63.941 63.9282 63.8857 63.8698 63.854 63.9058 63.8735 63.0148 63.1058 63.262 63.3457 63.6937 63.7547 63.7352 63.658 63.653 63.6418 63.655 63.627 63.639 63.6283 63.6442 63.6698 63.6738 63.6905 63.6963 63.709 63.731 63.7285 63.6895 63.7125 63.7453 63.7733 63.836 63.855 63.861 63.9405 64.0088 64.011 64.0423 64.0872 64.0843 64.1367 64.2063 64.2878 64.3535 64.438 64.484 64.4922 64.5447 64.572 64.6373 64.778 64.8083 64.913 64.978 65.005 65.0042 65.0257 65.0645 65.0577 65.1075 65.1263 65.1495 65.1637 65.2038 65.2065 65.1933 65.1975 65.2038 65.2473 65.2868 65.2917 65.3268 65.3995 65.4648 65.5325 65.5445 65.5082 65.5275 65.6162 65.6842 65.6917 65.7732 65.8317 65.8972 65.907 65.936 65.9952 66.0257 66.0255 66.0847 66.1265 66.1762 66.2755 66.3337 66.3835 66.4355 66.4945 66.519 66.554 66.6497 66.7357 66.777 66.7475 66.7527 66.7477 66.7985 66.853 66.8828 66.8997 66.9365 66.9697 66.9877 67.0425 67.051 67.082 67.158 67.345 67.4655 67.5062 66.983 66.8542 66.9542 67.2637 67.3597 67.5762 67.6523 67.694 67.7223 67.7135 67.6905 67.654 67.6162 67.7272 67.7262
64.0758 64.0843 64.0655 64.0368 64.0212 64.026 63.8805 63.8768 64.0625 64.075 64.0642 63.9832 63.9445 63.9695 63.9665 63.8865 63.8 63.7533 63.7573 63.7972 63.8377 63.1745 63.007 63.0687 63.2435 63.6027 63.7472 63.7355 63.671 63.6872 63.6398 63.6717 63.657 63.6815 63.664 63.653 63.71 63.7067 63.7188 63.7165 63.7282 63.792 63.8073 63.7955 63.8065 63.8595 63.9253 63.975 64.0127 64.045 64.1165 64.1257 64.2038 64.1827 64.233 64.2243 64.3193 64.4005 64.495 64.5307 64.5825 64.647 64.683 64.7665 64.8463 64.901 65.0202 65.065 65.1243 65.164 65.2103 65.226 65.2465 65.272 65.2682 65.3063 65.3245 65.322 65.3372 65.3672 65.3593 65.3828 65.3863 65.3855 65.4122 65.4782 65.5338 65.6022 65.637 65.6892 65.6953 65.7375 65.7247 65.7552 65.7765 65.7907 65.8158 65.8083 65.8745 65.9335 65.9293 65.9388 65.972 66.0147 66.007 66.003 66.0465 66.0843 66.135 66.126 66.187 66.189 66.226 66.285 66.3125 66.454 66.4585 66.5405 66.5352 66.5358 66.607 66.652 66.7025 66.7797 66.8085 66.7855 66.845 66.9352 67.0145 67.066 67.1075 67.2455 67.4072 67.4795 67.3053 66.8357 66.8265 66.9945 67.357 67.5005 67.6257 67.6708 67.7097 67.7227 67.7012 67.6845 67.6322 67.7247 67.727 67.7168
64.0738 64.0675 64.0458 64.0393 64.0555 64.0583 64.0775 64.0748 64.1087 64.073 64.0745 64.0315 63.9335 63.9048 63.8935 63.821 63.7357 63.7373 63.7332 63.7798 63.8418 63.7598 63.074 63.0527 63.299 63.237 63.554 63.9362 63.958 63.8683 63.8568 63.8997 63.898 63.9135 63.9535 63.9435 63.9063 63.913 63.9225 63.9502 63.9818 64.023 64.089 64.0695 64.072 64.1093 64.1625 64.2305 64.278 64.3043 64.3457 64.335 64.3725 64.3855 64.3978 64.4252 64.51 64.5697 64.6383 64.6752 64.6943 64.7552 64.824 64.897 64.9498 64.9835 65.0447 65.0875 65.1377 65.141 65.216 65.2667 65.2475 65.2333 65.2872 65.3528 65.3865 65.3717 65.3737 65.3845 65.394 65.4573 65.4433 65.4337 65.4555 65.4905 65.524 65.6052 65.6233 65.674 65.693 65.731 65.733 65.736 65.828 65.846 65.914 65.87 65.9352 66.061 66.0878 66.1123 66.1263 66.179 66.225 66.2353 66.211 66.2117 66.2085 66.204 66.199 66.1973 66.2253 66.274 66.308 66.3477 66.3532 66.402 66.335 66.3363 66.4492 66.4388 66.4733 66.5075 66.5872 66.6588 66.735 66.8577 66.9822 67.022 67.1093 67.2243 67.3163 67.463 66.9455 66.783 66.8463 67.2405 67.4303 67.573 67.646 67.6895 67.721 67.713 67.6908 67.6645 67.6305 67.7455 67.7393 67.6933
64.0498 64.0472 64.0425 64.0553 64.0947 64.0113 64.0407 64.045 64.063 64.0782 64.0362 63.9395 63.7995 63.762 63.7557 63.8375 63.7798 63.7472 63.792 63.8042 63.917 64.0242 63.7993 63.0742 63.0985 63.2383 63.187 63.658 64.11 64.0038 63.9675 63.9827 64.0143 64.0407 64.0472 63.9395 63.9987 63.987 64.017 64.0635 64.0892 64.1813 64.1943 64.1927 64.1715 64.1605 64.1745 64.2162 64.2685 64.2903 64.317 64.3398 64.3375 64.376 64.48 64.523 64.5765 64.5825 64.6468 64.6445 64.6712 64.7095 64.8215 64.9053 64.9685 65.0175 65.075 65.1117 65.1478 65.1578 65.204 65.2722 65.246 65.273 65.3265 65.3568 65.3643 65.3733 65.363 65.3932 65.4095 65.4635 65.4548 65.453 65.4782 65.4815 65.5173 65.5707 65.6123 65.6425 65.6545 65.6535 65.6673 65.7168 65.7872 65.822 65.869 65.9053 65.9727 66.012 66.0385 66.1302 66.1917 66.2245 66.2607 66.2633 66.3388 66.358 66.3855 66.415 66.4035 66.4115 66.4245 66.4128 66.5085 66.4855 66.464 66.4825 66.437 66.4258 66.482 66.4525 66.5035 66.5315 66.577 66.7065 66.7245 66.8323 66.9275 66.9955 67.1168 67.2363 67.316 67.1025 66.7685 66.7442 67.0048 67.4108 67.5345 67.621 67.6653 67.704 67.7182 67.7002 67.6765 67.652 67.6475 67.7548 67.7132 67.6748
64.0498 64.0378 64.0518 64.0865 64.0892 64.0383 64.0335 64.017 63.9455 63.927 63.8573 63.8295 63.7552 63.7255 63.7357 63.8428 63.8525 63.8507 63.9235 63.9847 64.005 64.1328 64.0413 63.4692 63.1953 63.2195 63.184 63.0552 63.9248 64.0577 64.046 63.9723 64.0608 64.101 64.1062 64.0277 64.061 63.9917 64.0242 64.117 64.125 64.1435 64.2535 64.1925 64.2262 64.224 64.2155 64.2353 64.2747 64.292 64.3375 64.3447 64.3467 64.3733 64.4583 64.46 64.4715 64.521 64.6048 64.6245 64.6257 64.7168 64.815 64.8867 64.9548 64.9818 65.026 65.0977 65.1395 65.1657 65.1758 65.2285 65.2952 65.302 65.3285 65.2735 65.2718 65.2897 65.32 65.3483 65.3865 65.445 65.4695 65.477 65.4932 65.4805 65.4853 65.566 65.6072 65.6008 65.6085 65.6243 65.6438 65.7093 65.7558 65.8245 65.868 65.9202 65.9283 65.895 65.9665 66.0462 66.1492 66.1957 66.176 66.2595 66.337 66.349 66.376 66.3945 66.398 66.4075 66.4372 66.536 66.5525 66.5458 66.5655 66.5865 66.6663 66.6395 66.665 66.7057 66.7055 66.7742 66.8388 66.727 66.7335 66.8343 66.8773 67.0033 67.0553 67.1055 67.1635 66.8307 66.688 66.7513 67.201 67.489 67.5775 67.6383 67.6835 67.7142 67.7055 67.6862 67.6403 67.651 67.7753 67.7575 67.7075 67.0218
64.054 64.0843 64.0853 64.1028 64.0735 64.0618 64.032 63.8625 63.7905 63.7915 63.845 63.7897 63.7783 63.7557 63.8172 63.9272 64.02 63.984 63.9772 63.9938 64.0953 64.192 64.2093 63.8597 63.384 63.217 63.354 63.0445 63.1082 64.1052 64.042 64.0378 64.0185 64.0027 64.046 64.019 63.9982 64.0247 64.0307 64.0468 64.0557 64.144 64.1602 64.2695 64.0835 64.093 64.128 64.189 64.1852 64.1937 64.2695 64.3043 64.3235 64.3568 64.3037 64.323 64.2917 64.292 64.343 64.397 64.4173 64.512 64.596 64.656 64.6837 64.7367 64.792 64.9515 64.996 65.0303 64.998 65.0645 65.0967 65.1637 65.1953 65.214 65.206 65.2113 65.2233 65.2747 65.337 65.3512 65.4088 65.3932 65.3895 65.4072 65.4365 65.514 65.567 65.575 65.5965 65.6315 65.6448 65.717 65.752 65.8135 65.8665 65.9105 65.8893 65.9307 65.9563 66.0297 66.088 66.1383 66.156 66.267 66.3725 66.332 66.323 66.3615 66.34 66.3333 66.4287 66.5068 66.5065 66.51 66.5565 66.5995 66.6345 66.5742 66.5685 66.6695 66.723 66.7503 66.7445 66.7165 66.7422 66.8063 66.8635 67.0113 66.9962 67.087 66.9258 66.6432 66.6325 66.9118 67.3615 67.5378 67.6202 67.6598 67.6963 67.7128 67.6915 67.6708 67.6537 67.7325 67.792 67.7702 67.7722 66.8512
64.0325 64.103 64.0837 64.0175 63.9453 63.89 63.8725 63.8262 63.7817 63.7832 63.8278 63.8182 63.9282 63.9265 63.9733 64.0328 64.052 64.0345 64.0078 64.0225 64.0598 64.1575 64.1667 64.1543 63.9445 63.371 63.3148 64.0645 63.2122 63.797 63.936 63.927 63.8945 63.8893 63.899 63.9492 63.916 63.8392 63.8925 63.9215 63.9555 63.861 63.8755 64.1492 64.0932 64.0115 63.928 63.9268 63.9372 64.1025 64.0707 63.9967 64.1407 64.1065 64.1038 64.2535 64.166 64.153 64.1985 64.2442 64.3002 64.3652 64.4672 64.5325 64.536 64.5635 64.6233 64.8497 64.8665 64.8528 64.8887 64.875 64.9013 64.879 64.8802 64.9255 64.9725 64.9628 64.9632 65.0003 65.0895 65.1072 65.138 65.172 65.2302 65.2155 65.247 65.3067 65.3848 65.469 65.4542 65.4825 65.5815 65.599 65.6645 65.725 65.8163 65.873 65.8723 65.9225 65.975 65.9977 66.0313 66.0752 66.148 66.2493 66.1865 66.13 66.122 66.3457 66.315 66.3262 66.4595 66.4768 66.4747 66.504 66.5437 66.551 66.4965 66.5127 66.524 66.643 66.666 66.6965 66.688 66.6998 66.7418 66.757 66.8572 67.009 67.0155 66.974 66.5238 66.495 66.6858 67.23 67.467 67.5827 67.6373 67.6775 67.707 67.6982 67.681 67.6585 67.6653 67.7607 67.7835 67.788 66.912 66.8508
64.0098 63.9673 63.8773 63.8543 63.8652 63.8573 63.8435 63.8558 63.8192 63.8765 64.0117 64.0745 64.0993 64.0745 64.024 64.0587 64.0608 64.052 64.033 64.0512 64.0583 64.1273 64.1472 64.1205 64.1235 63.958 63.0965 63.5785 63.4535 63.5433 63.9142 63.8995 63.8455 63.841 63.851 63.9027 63.9325 63.8865 64.0427 64.1355 63.9845 63.9878 63.968 64.0092 64.2872 64.1038 63.9442 63.958 63.9425 64.0845 64.0543 64.0005 64.0427 64.0847 64.1015 64.1913 64.1693 64.167 64.213 64.249 64.3595 64.3997 64.5023 64.5547 64.5555 64.577 64.6245 64.8938 64.8613 64.8737 64.8865 64.8685 64.888 64.874 64.8765 64.9085 64.9262 64.9265 64.9355 64.9668 65.0358 65.0565 65.0622 65.1137 65.1195 65.1182 65.0953 65.1405 65.1933 65.2377 65.295 65.333 65.3548 65.3867 65.434 65.4488 65.591 65.6472 65.7675 65.8047 65.8175 65.8355 65.9495 65.9865 66.0595 66.1155 66.1352 66.1015 66.1145 66.137 66.1448 66.2702 66.3012 66.3733 66.4417 66.4548 66.507 66.4508 66.4013 66.4167 66.447 66.632 66.6038 66.589 66.6113 66.6775 66.6975 66.7487 66.906 66.9942 67.0677 66.7028 66.501 66.6302 67.0635 67.3818 67.4945 67.6165 67.6547 67.6898 67.6967 67.6775 67.659 67.6135 67.707 67.7568 67.774 67.2053 66.8108 66.6848
63.879 63.8255 63.816 63.8288 63.823 63.8545 63.8527 63.8997 63.9545 64.0498 64.0993 64.1565 64.176 64.13 64.1395 64.08 64.0703 64.0768 64.1192 64.0612 64.0573 64.087 64.1168 64.154 64.1858 64.094 63.342 63.195 63.4675 63.56 63.8288 64.08 64.1062 64.1233 64.1288 64.08 64.0565 64.0525 64.0863 64.1155 64.125 64.1957 64.1732 64.1578 64.1975 64.186 64.127 64.271 64.2155 64.2138 64.2172 64.1988 64.2438 64.274 64.356 64.3633 64.3753 64.3818 64.4212 64.5075 64.5758 64.6312 64.686 64.7425 64.8197 64.8715 64.9323 65.0195 65.0615 65.1035 65.1198 65.109 65.1133 65.0928 65.072 65.0805 65.1072 65.1482 65.142 65.152 65.1633 65.155 65.149 65.1868 65.169 65.1527 65.124 65.1527 65.2028 65.2327 65.3063 65.329 65.353 65.3538 65.3695 65.4023 65.4885 65.545 65.5673 65.6085 65.6305 65.6263 65.685 65.6935 65.7325 65.823 65.9175 66.0078 65.9952 65.9835 65.9908 65.9893 65.9815 66.047 66.1117 66.2015 66.3365 66.39 66.2903 66.251 66.2458 66.5017 66.5263 66.5525 66.6162 66.6275 66.658 66.748 66.827 66.9512 66.7572 66.517 66.5163 66.8075 67.2513 67.4802 67.5523 67.6285 67.6673 67.6927 67.6758 67.6517 67.594 67.5677 67.7255 67.7493 67.7615 67.03 66.8063 66.6875
63.824 63.8068 63.7955 63.822 63.8455 63.9355 64.0523 64.0855 64.0673 64.071 64.103 64.1535 64.1775 64.1588 64.1725 64.2077 64.1158 64.0965 64.12 64.1012 64.1125 64.0833 64.1083 64.1975 64.2325 64.264 63.9595 63.2113 63.2142 65.8938 63.8558 64.0273 64.2548 64.17 64.1393 64.1042 64.1417 64.183 64.1777 64.2063 64.26 64.3165 64.3307 64.291 64.3008 64.284 64.2803 64.3538 64.3343 64.3098 64.3203 64.3365 64.382 64.3733 64.481 64.5232 64.527 64.5475 64.5905 64.6255 64.737 64.7865 64.8483 64.8895 64.9737 65.027 65.0885 65.1 65.1923 65.2025 65.2678 65.2917 65.2982 65.286 65.32 65.3995 65.3825 65.3903 65.3867 65.3712 65.3815 65.3852 65.4218 65.391 65.3852 65.3848 65.3913 65.3893 65.4057 65.4415 65.5182 65.5445 65.5147 65.5025 65.4948 65.4935 65.562 65.5823 65.6322 65.619 65.611 65.6265 65.6745 65.6825 65.7152 65.7998 65.932 66.0048 65.9833 65.9792 66.0345 66.0267 66.0137 66.047 66.1032 66.1868 66.2225 66.2055 66.1215 66.1245 66.1752 66.2813 66.4205 66.5465 66.611 66.6635 66.68 66.7448 66.813 66.8463 66.522 66.4887 66.5423 67.0348 67.3565 67.535 67.605 67.6442 67.677 67.6833 67.6585 67.6325 67.6068 67.5305 67.4273 67.335 67.742 67.6557 67.6492 67.672
63.8228 63.8155 63.879 63.966 64.0182 64.1127 64.12 64.0853 64.079 64.0683 64.0855 64.133 64.1845 64.1742 64.1825 64.1988 64.1868 64.14 64.153 64.17 64.1768 64.1318 64.1298 64.1375 64.1107 64.1257 64.0723 63.9092 63.3052 63.2515 63.6522 63.6312 64.176 64.2412 64.1568 64.1432 64.1365 64.1643 64.1827 64.2253 64.2623 64.2937 64.2728 64.262 64.272 64.3538 64.3135 64.323 64.3418 64.3282 64.3425 64.4088 64.4275 64.4695 64.4765 64.5062 64.5283 64.5845 64.6123 64.6517 64.687 64.7165 64.8292 64.8955 64.962 65.0462 65.021 65.0557 65.1292 65.176 65.2312 65.2848 65.284 65.3635 65.3365 65.2315 65.322 65.4502 65.4342 65.421 65.4222 65.4063 65.4358 65.387 65.3897 65.4222 65.454 65.462 65.4635 65.5062 65.5885 65.6622 65.647 65.6602 65.6917 65.714 65.7635 65.7848 65.8597 65.8372 65.8357 65.8443 65.8457 65.8798 65.926 65.9768 66.078 66.1675 66.1387 66.2178 66.274 66.2747 66.2773 66.2637 66.2667 66.2935 66.352 66.1995 66.1283 66.1565 66.2255 66.3152 66.4655 66.5675 66.511 66.6852 66.7527 66.7623 66.7975 66.4573 66.3773 66.4733 66.883 67.2572 67.4733 67.5565 67.6205 67.657 67.6827 67.67 67.6515 67.622 67.597 67.562 67.6855 67.6793 67.6855 67.6563 67.6205 67.6255
63.942 64.0795 64.0827 64.1283 64.1152 64.0437 64.0508 64.116 64.0912 64.0827 64.1058 64.0642 64.1243 64.197 64.2357 64.1685 64.172 64.1628 64.2057 64.1742 64.1345 64.1243 64.0512 64.033 64.0417 64.0368 64.0823 64.0415 63.3275 63.2485 63.3778 63.3275 64.049 64.1982 64.1152 64.092 64.075 64.0738 64.0892 64.0847 64.0938 64.122 64.0965 64.1018 64.1797 64.2197 64.2373 64.2657 64.2 64.3015 64.2905 64.2527 64.2995 64.3112 64.3548 64.295 64.52 64.5338 64.533 64.5748 64.5938 64.6438 64.748 64.8252 64.8705 64.9063 64.8962 64.9163 64.9938 65.08 65.1255 65.2093 65.2745 65.3145 65.2845 65.2385 65.3083 65.439 65.4355 65.4197 65.3875 65.3995 65.4163 65.3995 65.4037 65.451 65.4625 65.4548 65.4557 65.48 65.5065 65.6175 65.6575 65.6628 65.6825 65.7115 65.7538 65.8148 65.7965 65.8455 65.896 65.9492 65.9693 66.003 66.0345 66.0242 66.056 66.084 66.1085 66.1773 66.228 66.292 66.312 66.3418 66.3948 66.4333 66.406 66.405 66.4092 66.505 66.4315 66.411 66.516 66.5318 66.5547 66.694 66.7373 66.7487 66.511 66.3 66.3258 66.705 67.0758 67.3735 67.5023 67.6008 67.6383 67.6708 67.6762 67.6598 67.6308 67.6263 67.6103 67.582 67.5922 67.6543 67.6637 67.7117 67.7095 66.6585
64.187 64.1858 64.183 64.1545 64.1425 64.0735 64.103 64.179 64.1202 64.1338 64.147 64.1403 64.1247 64.403 64.3475 64.2765 64.2308 64.1868 64.1633 64.1143 64.025 63.9365 63.9173 63.9145 63.967 63.9678 63.9948 64.0557 63.762 63.5052 63.5218 63.5327 63.9922 64.095 63.9663 63.9738 63.9468 63.9272 63.918 63.9575 63.962 63.9615 63.9357 63.9453 64.013 64.1425 64.1725 64.218 64.195 64.2572 64.2637 64.162 64.1377 64.1162 64.1233 64.1425 64.2337 64.2568 64.2075 64.416 64.487 64.5265 64.5358 64.6117 64.6035 64.6675 64.6937 64.716 64.7637 64.7978 64.8777 64.9617 65.0115 65.0435 65.119 65.2175 65.261 65.2855 65.2538 65.2822 65.3187 65.3538 65.384 65.4143 65.4285 65.4548 65.46 65.4908 65.4973 65.4843 65.4932 65.5295 65.621 65.6192 65.656 65.6845 65.673 65.706 65.7673 65.8132 65.8863 65.9375 65.9628 65.926 65.9505 65.9945 66.0335 66.0265 66.1025 66.1667 66.1957 66.2315 66.2465 66.2473 66.3142 66.3535 66.3848 66.4095 66.5215 66.4845 66.4445 66.4423 66.51 66.5235 66.5523 66.5723 66.5758 66.5847 66.267 66.266 66.3568 66.9567 67.2885 67.4532 67.568 67.6145 67.651 67.672 67.657 67.644 67.6237 67.601 67.5565 67.5222 67.5098 67.5173 67.5642 67.7138 67.737 67.7223
64.2787 64.231 64.1665 64.1295 64.1543 64.2107 64.1872 64.1833 64.184 64.2018 64.1858 64.164 64.169 64.2275 64.2637 64.2432 64.1765 64.076 63.9272 63.8662 63.8392 63.8153 63.81 63.842 63.9072 63.9528 63.9823 64.062 63.6442 63.2945 63.822 63.6592 64.015 64.0745 63.949 63.936 63.9268 63.9323 63.9002 63.9458 64.0537 63.9705 63.9342 63.943 64.0295 64.1742 64.1755 64.0867 64.0332 64.0815 64.0523 64.0855 64.094 64.0932 64.1022 64.105 64.1783 64.223 64.1875 64.4235 64.4165 64.451 64.4808 64.513 64.5732 64.6237 64.6435 64.676 64.685 64.7132 64.7763 64.8098 64.8313 64.8755 64.9045 64.962 64.9457 64.9287 64.983 65.036 65.0563 65.0807 65.1288 65.1755 65.1965 65.2777 65.2745 65.2865 65.3045 65.3457 65.3438 65.4212 65.485 65.5397 65.5707 65.5943 65.6805 65.6868 65.697 65.741 65.8463 65.9135 65.9268 65.9047 65.9242 66.0003 66.017 66.0185 66.1065 66.1618 66.2138 66.1975 66.1637 66.1725 66.2585 66.371 66.402 66.3767 66.3828 66.4088 66.4167 66.4057 66.4668 66.5153 66.5222 66.4555 66.4613 66.3443 66.2335 66.2835 66.7645 67.1455 67.3635 67.5102 67.5912 67.6315 67.6595 67.6615 67.6462 67.6253 67.6202 67.582 67.5322 67.4902 67.4768 67.406 67.333 67.307 67.6625 -9999
64.3018 64.216 64.1923 64.136 64.2175 64.2237 64.215 64.216 64.203 64.21 64.1845 64.1633 64.157 64.2178 64.102 63.977 63.915 63.827 63.8128 63.8068 63.8112 63.8143 63.8035 63.8465 63.945 64.023 64.086 64.1185 63.4857 63.5115 63.7015 63.6838 64.0663 64.0827 64.0235 64.007 64.0218 64.0123 64.0648 64.0772 64.1352 64.1373 64.1255 64.1312 64.1985 64.2665 64.2182 64.1715 64.1643 64.176 64.1742 64.1823 64.2335 64.1835 64.1875 64.2135 64.2755 64.2773 64.3225 64.4595 64.5145 64.5178 64.5285 64.6223 64.6618 64.7233 64.7517 64.7678 64.7607 64.7673 64.8562 64.8798 64.894 64.8842 64.9095 64.9262 64.9488 64.9515 64.9942 65.0257 65.034 65.044 65.0488 65.061 65.1062 65.1397 65.1295 65.1647 65.1633 65.169 65.154 65.1683 65.1908 65.217 65.256 65.329 65.407 65.462 65.5313 65.6448 65.6975 65.7728 65.7795 65.8148 65.852 65.9385 65.972 66.0557 66.0967 66.1208 66.18 66.2122 66.1695 66.174 66.2927 66.405 66.4352 66.4065 66.3493 66.3402 66.3637 66.4092 66.442 66.5042 66.4335 66.4043 66.4625 66.202 66.1963 66.5565 66.961 67.2645 67.4577 67.5673 67.6065 67.641 67.656 67.6397 67.6302 67.6168 67.6022 67.5693 67.5182 67.4902 67.479 67.468 67.348 66.7398 67.672 -9999
